 295635.00,4656711.00,    67.35
 295636.00,4656711.00,    67.40
 295637.00,4656711.00,    67.50
 295638.00,4656711.00,    67.49
 295639.00,4656711.00,    67.47
 295640.00,4656711.00,    67.44
 295641.00,4656711.00,    67.54
 295642.00,4656711.00,    67.54
 295643.00,4656711.00,    67.45
 295644.00,4656711.00,    67.41
 295645.00,4656711.00,    67.40
 295646.00,4656711.00,    67.49
 295647.00,4656711.00,    67.56
 295648.00,4656711.00,    67.30
 295649.00,4656711.00,    67.35
 295650.00,4656711.00,    67.11
 295651.00,4656711.00,    67.25
 295652.00,4656711.00,    67.28
 295653.00,4656711.00,    67.33
 295654.00,4656711.00,    67.50
 295655.00,4656711.00,    67.66
 295656.00,4656711.00,    67.65
 295657.00,4656711.00,    67.48
 295658.00,4656711.00,    67.49
 295659.00,4656711.00,    67.50
 295660.00,4656711.00,    67.50
 295661.00,4656711.00,    67.52
 295662.00,4656711.00,    67.53
 295663.00,4656711.00,    67.53
 295664.00,4656711.00,    67.60
 295665.00,4656711.00,    67.54
 295666.00,4656711.00,    67.52
 295667.00,4656711.00,    67.47
 295668.00,4656711.00,    67.51
 295669.00,4656711.00,    67.52
 295670.00,4656711.00,    67.48
 295671.00,4656711.00,    67.65
 295672.00,4656711.00,    67.45
 295673.00,4656711.00,    67.56
 295674.00,4656711.00,    67.67
 295675.00,4656711.00,    67.69
 295676.00,4656711.00,    66.78
 295677.00,4656711.00,    66.97
 295678.00,4656711.00,    67.72
 295679.00,4656711.00,    67.72
 295680.00,4656711.00,    68.44
 295681.00,4656711.00,    68.97
 295682.00,4656711.00,    69.73
 295683.00,4656711.00,    70.54
 295684.00,4656711.00,    71.08
 295685.00,4656711.00,    71.56
 295686.00,4656711.00,    72.47
 295687.00,4656711.00,    72.99
 295688.00,4656711.00,    73.13
 295689.00,4656711.00,    73.13
 295563.00,4656710.00,    67.30
 295564.00,4656710.00,    67.25
 295565.00,4656710.00,    67.23
 295566.00,4656710.00,    67.23
 295567.00,4656710.00,    67.12
 295568.00,4656710.00,    67.59
 295569.00,4656710.00,    67.65
 295570.00,4656710.00,    67.61
 295571.00,4656710.00,    67.30
 295572.00,4656710.00,    67.49
 295573.00,4656710.00,    67.51
 295574.00,4656710.00,    67.43
 295575.00,4656710.00,    67.56
 295576.00,4656710.00,    67.13
 295577.00,4656710.00,    67.22
 295578.00,4656710.00,    67.00
 295579.00,4656710.00,    66.87
 295580.00,4656710.00,    66.67
 295581.00,4656710.00,    66.54
 295582.00,4656710.00,    66.64
 295583.00,4656710.00,    66.79
 295584.00,4656710.00,    66.93
 295585.00,4656710.00,    67.34
 295586.00,4656710.00,    67.08
 295587.00,4656710.00,    67.00
 295588.00,4656710.00,    67.31
 295589.00,4656710.00,    67.42
 295590.00,4656710.00,    67.53
 295591.00,4656710.00,    67.27
 295592.00,4656710.00,    67.29
 295593.00,4656710.00,    67.31
 295594.00,4656710.00,    67.58
 295595.00,4656710.00,    67.69
 295596.00,4656710.00,    67.41
 295597.00,4656710.00,    67.33
 295598.00,4656710.00,    67.45
 295599.00,4656710.00,    67.28
 295600.00,4656710.00,    67.27
 295601.00,4656710.00,    67.52
 295602.00,4656710.00,    67.52
 295603.00,4656710.00,    67.20
 295604.00,4656710.00,    67.15
 295605.00,4656710.00,    67.03
 295606.00,4656710.00,    66.93
 295607.00,4656710.00,    66.96
 295608.00,4656710.00,    66.95
 295609.00,4656710.00,    67.49
 295610.00,4656710.00,    67.37
 295611.00,4656710.00,    67.28
 295612.00,4656710.00,    67.33
 295613.00,4656710.00,    67.33
 295614.00,4656710.00,    67.34
 295615.00,4656710.00,    67.60
 295616.00,4656710.00,    67.48
 295617.00,4656710.00,    67.49
 295618.00,4656710.00,    67.36
 295619.00,4656710.00,    67.38
 295620.00,4656710.00,    67.33
 295621.00,4656710.00,    67.52
 295622.00,4656710.00,    67.35
 295623.00,4656710.00,    67.47
 295624.00,4656710.00,    67.07
 295625.00,4656710.00,    67.02
 295626.00,4656710.00,    66.99
 295627.00,4656710.00,    67.04
 295628.00,4656710.00,    67.34
 295629.00,4656710.00,    67.26
 295630.00,4656710.00,    67.38
 295631.00,4656710.00,    67.29
 295632.00,4656710.00,    67.27
 295633.00,4656710.00,    67.34
 295634.00,4656710.00,    67.36
 295635.00,4656710.00,    67.38
 295636.00,4656710.00,    67.55
 295637.00,4656710.00,    67.49
 295638.00,4656710.00,    67.43
 295639.00,4656710.00,    67.44
 295640.00,4656710.00,    67.53
 295641.00,4656710.00,    67.54
 295642.00,4656710.00,    67.39
 295643.00,4656710.00,    67.38
 295644.00,4656710.00,    67.39
 295645.00,4656710.00,    67.48
 295646.00,4656710.00,    67.60
 295647.00,4656710.00,    67.67
 295648.00,4656710.00,    67.33
 295649.00,4656710.00,    67.29
 295650.00,4656710.00,    67.27
 295651.00,4656710.00,    67.29
 295652.00,4656710.00,    67.42
 295653.00,4656710.00,    67.51
 295654.00,4656710.00,    67.56
 295655.00,4656710.00,    67.74
 295656.00,4656710.00,    67.48
 295657.00,4656710.00,    67.48
 295658.00,4656710.00,    67.62
 295659.00,4656710.00,    67.49
 295660.00,4656710.00,    67.53
 295661.00,4656710.00,    67.52
 295662.00,4656710.00,    67.55
 295663.00,4656710.00,    67.58
 295664.00,4656710.00,    67.50
 295665.00,4656710.00,    67.51
 295666.00,4656710.00,    67.60
 295667.00,4656710.00,    67.38
 295668.00,4656710.00,    67.43
 295669.00,4656710.00,    67.43
 295670.00,4656710.00,    67.68
 295671.00,4656710.00,    67.71
 295672.00,4656710.00,    67.64
 295673.00,4656710.00,    67.66
 295674.00,4656710.00,    67.68
 295675.00,4656710.00,    67.80
 295676.00,4656710.00,    67.69
 295677.00,4656710.00,    67.10
 295678.00,4656710.00,    67.40
 295679.00,4656710.00,    68.44
 295680.00,4656710.00,    68.87
 295681.00,4656710.00,    68.93
 295682.00,4656710.00,    69.40
 295683.00,4656710.00,    70.54
 295684.00,4656710.00,    71.02
 295685.00,4656710.00,    71.52
 295686.00,4656710.00,    71.99
 295687.00,4656710.00,    72.42
 295688.00,4656710.00,    72.99
 295691.00,4656710.00,    73.36
 295692.00,4656710.00,    73.10
 295693.00,4656710.00,    73.36
 295562.00,4656709.00,    67.44
 295563.00,4656709.00,    67.43
 295564.00,4656709.00,    67.30
 295565.00,4656709.00,    67.25
 295566.00,4656709.00,    67.23
 295567.00,4656709.00,    67.57
 295568.00,4656709.00,    67.57
 295569.00,4656709.00,    67.59
 295570.00,4656709.00,    67.30
 295571.00,4656709.00,    67.25
 295572.00,4656709.00,    67.14
 295573.00,4656709.00,    67.08
 295574.00,4656709.00,    67.14
 295575.00,4656709.00,    67.05
 295576.00,4656709.00,    67.52
 295577.00,4656709.00,    67.19
 295578.00,4656709.00,    67.25
 295579.00,4656709.00,    67.20
 295580.00,4656709.00,    66.64
 295581.00,4656709.00,    67.12
 295582.00,4656709.00,    67.19
 295583.00,4656709.00,    67.49
 295584.00,4656709.00,    67.48
 295585.00,4656709.00,    67.21
 295586.00,4656709.00,    67.34
 295587.00,4656709.00,    67.39
 295588.00,4656709.00,    67.17
 295589.00,4656709.00,    67.52
 295590.00,4656709.00,    67.53
 295591.00,4656709.00,    67.47
 295592.00,4656709.00,    67.50
 295593.00,4656709.00,    67.60
 295594.00,4656709.00,    67.61
 295595.00,4656709.00,    67.41
 295596.00,4656709.00,    67.30
 295597.00,4656709.00,    67.11
 295598.00,4656709.00,    67.14
 295599.00,4656709.00,    67.17
 295600.00,4656709.00,    67.44
 295601.00,4656709.00,    67.28
 295602.00,4656709.00,    67.32
 295603.00,4656709.00,    67.19
 295604.00,4656709.00,    67.10
 295605.00,4656709.00,    67.00
 295606.00,4656709.00,    67.16
 295607.00,4656709.00,    66.97
 295608.00,4656709.00,    67.50
 295609.00,4656709.00,    67.41
 295610.00,4656709.00,    67.36
 295611.00,4656709.00,    67.32
 295612.00,4656709.00,    67.34
 295613.00,4656709.00,    67.42
 295614.00,4656709.00,    67.65
 295615.00,4656709.00,    67.49
 295616.00,4656709.00,    67.43
 295617.00,4656709.00,    67.37
 295618.00,4656709.00,    67.34
 295619.00,4656709.00,    67.32
 295620.00,4656709.00,    67.34
 295621.00,4656709.00,    67.40
 295622.00,4656709.00,    67.34
 295623.00,4656709.00,    67.11
 295624.00,4656709.00,    67.08
 295625.00,4656709.00,    67.09
 295626.00,4656709.00,    67.08
 295627.00,4656709.00,    67.06
 295628.00,4656709.00,    67.44
 295629.00,4656709.00,    67.36
 295630.00,4656709.00,    67.33
 295631.00,4656709.00,    67.20
 295632.00,4656709.00,    67.28
 295633.00,4656709.00,    67.37
 295634.00,4656709.00,    67.41
 295635.00,4656709.00,    67.51
 295636.00,4656709.00,    67.50
 295637.00,4656709.00,    67.41
 295638.00,4656709.00,    67.44
 295639.00,4656709.00,    67.42
 295640.00,4656709.00,    67.50
 295641.00,4656709.00,    67.57
 295642.00,4656709.00,    67.32
 295643.00,4656709.00,    67.39
 295644.00,4656709.00,    67.44
 295645.00,4656709.00,    67.45
 295646.00,4656709.00,    67.37
 295647.00,4656709.00,    67.37
 295648.00,4656709.00,    67.13
 295649.00,4656709.00,    67.10
 295650.00,4656709.00,    67.30
 295651.00,4656709.00,    67.32
 295652.00,4656709.00,    67.71
 295653.00,4656709.00,    67.66
 295654.00,4656709.00,    67.68
 295655.00,4656709.00,    67.44
 295656.00,4656709.00,    67.43
 295657.00,4656709.00,    67.46
 295658.00,4656709.00,    67.47
 295659.00,4656709.00,    67.45
 295660.00,4656709.00,    67.42
 295661.00,4656709.00,    67.47
 295662.00,4656709.00,    67.52
 295663.00,4656709.00,    67.41
 295664.00,4656709.00,    67.63
 295665.00,4656709.00,    67.70
 295666.00,4656709.00,    67.64
 295667.00,4656709.00,    67.40
 295668.00,4656709.00,    67.43
 295669.00,4656709.00,    67.46
 295670.00,4656709.00,    67.64
 295671.00,4656709.00,    67.63
 295672.00,4656709.00,    67.72
 295673.00,4656709.00,    67.66
 295674.00,4656709.00,    67.97
 295675.00,4656709.00,    68.00
 295676.00,4656709.00,    67.80
 295677.00,4656709.00,    67.59
 295678.00,4656709.00,    67.40
 295679.00,4656709.00,    68.44
 295680.00,4656709.00,    68.44
 295681.00,4656709.00,    68.87
 295682.00,4656709.00,    69.98
 295683.00,4656709.00,    70.51
 295684.00,4656709.00,    70.95
 295685.00,4656709.00,    71.87
 295686.00,4656709.00,    72.40
 295687.00,4656709.00,    72.81
 295688.00,4656709.00,    72.81
 295691.00,4656709.00,    73.16
 295692.00,4656709.00,    73.36
 295693.00,4656709.00,    73.16
 295562.00,4656708.00,    67.43
 295563.00,4656708.00,    67.44
 295564.00,4656708.00,    67.18
 295565.00,4656708.00,    67.30
 295567.00,4656708.00,    67.25
 295568.00,4656708.00,    67.57
 295569.00,4656708.00,    67.56
 295570.00,4656708.00,    67.22
 295571.00,4656708.00,    67.10
 295572.00,4656708.00,    67.38
 295573.00,4656708.00,    67.47
 295574.00,4656708.00,    67.45
 295575.00,4656708.00,    67.34
 295576.00,4656708.00,    67.15
 295577.00,4656708.00,    66.97
 295578.00,4656708.00,    66.94
 295579.00,4656708.00,    66.94
 295580.00,4656708.00,    67.12
 295581.00,4656708.00,    67.12
 295582.00,4656708.00,    67.01
 295583.00,4656708.00,    67.09
 295584.00,4656708.00,    67.09
 295585.00,4656708.00,    66.95
 295586.00,4656708.00,    67.03
 295587.00,4656708.00,    67.11
 295588.00,4656708.00,    67.14
 295589.00,4656708.00,    67.25
 295590.00,4656708.00,    67.29
 295591.00,4656708.00,    67.29
 295592.00,4656708.00,    67.29
 295593.00,4656708.00,    67.27
 295594.00,4656708.00,    67.35
 295595.00,4656708.00,    67.34
 295596.00,4656708.00,    67.31
 295597.00,4656708.00,    67.27
 295598.00,4656708.00,    67.24
 295599.00,4656708.00,    67.26
 295600.00,4656708.00,    67.59
 295601.00,4656708.00,    67.53
 295602.00,4656708.00,    67.18
 295603.00,4656708.00,    67.07
 295604.00,4656708.00,    67.01
 295605.00,4656708.00,    67.13
 295606.00,4656708.00,    67.05
 295607.00,4656708.00,    67.53
 295608.00,4656708.00,    67.52
 295609.00,4656708.00,    67.32
 295610.00,4656708.00,    67.30
 295611.00,4656708.00,    67.23
 295612.00,4656708.00,    67.38
 295613.00,4656708.00,    67.34
 295614.00,4656708.00,    67.49
 295615.00,4656708.00,    67.42
 295616.00,4656708.00,    67.29
 295617.00,4656708.00,    67.28
 295618.00,4656708.00,    67.27
 295619.00,4656708.00,    67.26
 295620.00,4656708.00,    67.28
 295621.00,4656708.00,    67.49
 295622.00,4656708.00,    67.40
 295623.00,4656708.00,    67.01
 295624.00,4656708.00,    66.97
 295625.00,4656708.00,    66.98
 295626.00,4656708.00,    67.08
 295627.00,4656708.00,    67.25
 295628.00,4656708.00,    67.38
 295629.00,4656708.00,    67.37
 295630.00,4656708.00,    67.31
 295631.00,4656708.00,    67.33
 295632.00,4656708.00,    67.35
 295633.00,4656708.00,    67.41
 295634.00,4656708.00,    67.44
 295635.00,4656708.00,    67.53
 295636.00,4656708.00,    67.44
 295637.00,4656708.00,    67.45
 295638.00,4656708.00,    67.48
 295639.00,4656708.00,    67.53
 295640.00,4656708.00,    67.46
 295641.00,4656708.00,    67.35
 295642.00,4656708.00,    67.40
 295643.00,4656708.00,    67.40
 295644.00,4656708.00,    67.51
 295645.00,4656708.00,    67.57
 295646.00,4656708.00,    67.29
 295647.00,4656708.00,    67.33
 295648.00,4656708.00,    67.07
 295649.00,4656708.00,    67.20
 295650.00,4656708.00,    67.28
 295651.00,4656708.00,    67.40
 295652.00,4656708.00,    67.59
 295653.00,4656708.00,    67.70
 295654.00,4656708.00,    67.41
 295655.00,4656708.00,    67.41
 295656.00,4656708.00,    67.45
 295657.00,4656708.00,    67.69
 295658.00,4656708.00,    67.45
 295659.00,4656708.00,    67.45
 295660.00,4656708.00,    67.53
 295661.00,4656708.00,    67.50
 295662.00,4656708.00,    67.48
 295663.00,4656708.00,    67.44
 295664.00,4656708.00,    67.53
 295665.00,4656708.00,    67.60
 295666.00,4656708.00,    67.52
 295667.00,4656708.00,    67.53
 295668.00,4656708.00,    67.54
 295669.00,4656708.00,    67.61
 295670.00,4656708.00,    67.53
 295671.00,4656708.00,    67.56
 295672.00,4656708.00,    67.75
 295673.00,4656708.00,    67.56
 295674.00,4656708.00,    67.81
 295675.00,4656708.00,    67.90
 295676.00,4656708.00,    67.59
 295677.00,4656708.00,    67.63
 295678.00,4656708.00,    67.63
 295679.00,4656708.00,    68.26
 295680.00,4656708.00,    68.87
 295681.00,4656708.00,    69.08
 295682.00,4656708.00,    70.11
 295683.00,4656708.00,    70.36
 295684.00,4656708.00,    70.89
 295685.00,4656708.00,    71.78
 295686.00,4656708.00,    72.30
 295687.00,4656708.00,    72.80
 295688.00,4656708.00,    73.16
 295691.00,4656708.00,    73.16
 295692.00,4656708.00,    73.16
 295693.00,4656708.00,    73.16
 295696.00,4656708.00,    73.42
 295561.00,4656707.00,    67.41
 295562.00,4656707.00,    67.41
 295563.00,4656707.00,    67.30
 295564.00,4656707.00,    67.30
 295565.00,4656707.00,    67.30
 295566.00,4656707.00,    67.30
 295567.00,4656707.00,    67.23
 295568.00,4656707.00,    67.25
 295569.00,4656707.00,    67.24
 295570.00,4656707.00,    66.91
 295571.00,4656707.00,    66.94
 295572.00,4656707.00,    67.19
 295573.00,4656707.00,    67.15
 295574.00,4656707.00,    67.34
 295575.00,4656707.00,    67.13
 295576.00,4656707.00,    67.08
 295577.00,4656707.00,    66.94
 295578.00,4656707.00,    66.79
 295579.00,4656707.00,    66.89
 295580.00,4656707.00,    67.03
 295581.00,4656707.00,    67.03
 295582.00,4656707.00,    67.36
 295583.00,4656707.00,    67.21
 295584.00,4656707.00,    67.13
 295585.00,4656707.00,    67.09
 295586.00,4656707.00,    67.14
 295587.00,4656707.00,    67.41
 295588.00,4656707.00,    67.29
 295589.00,4656707.00,    67.20
 295590.00,4656707.00,    67.28
 295591.00,4656707.00,    67.28
 295592.00,4656707.00,    67.27
 295593.00,4656707.00,    67.36
 295594.00,4656707.00,    67.34
 295595.00,4656707.00,    67.27
 295596.00,4656707.00,    67.24
 295597.00,4656707.00,    67.26
 295598.00,4656707.00,    67.23
 295599.00,4656707.00,    67.23
 295600.00,4656707.00,    67.36
 295601.00,4656707.00,    67.43
 295602.00,4656707.00,    67.02
 295603.00,4656707.00,    66.91
 295604.00,4656707.00,    67.01
 295605.00,4656707.00,    67.02
 295606.00,4656707.00,    66.96
 295607.00,4656707.00,    67.33
 295608.00,4656707.00,    67.32
 295609.00,4656707.00,    67.42
 295610.00,4656707.00,    67.23
 295611.00,4656707.00,    67.32
 295612.00,4656707.00,    67.33
 295613.00,4656707.00,    67.43
 295614.00,4656707.00,    67.52
 295615.00,4656707.00,    67.46
 295616.00,4656707.00,    67.32
 295617.00,4656707.00,    67.32
 295618.00,4656707.00,    67.50
 295619.00,4656707.00,    67.34
 295620.00,4656707.00,    67.23
 295621.00,4656707.00,    67.47
 295622.00,4656707.00,    67.02
 295623.00,4656707.00,    66.96
 295624.00,4656707.00,    67.02
 295625.00,4656707.00,    67.06
 295626.00,4656707.00,    67.33
 295627.00,4656707.00,    67.41
 295628.00,4656707.00,    67.30
 295629.00,4656707.00,    67.31
 295630.00,4656707.00,    67.29
 295631.00,4656707.00,    67.39
 295632.00,4656707.00,    67.34
 295633.00,4656707.00,    67.44
 295634.00,4656707.00,   109.53
 295635.00,4656707.00,    67.42
 295636.00,4656707.00,    67.44
 295637.00,4656707.00,    67.43
 295638.00,4656707.00,    67.56
 295639.00,4656707.00,    67.47
 295640.00,4656707.00,    67.39
 295641.00,4656707.00,    67.34
 295642.00,4656707.00,    67.39
 295643.00,4656707.00,    67.48
 295644.00,4656707.00,    67.65
 295645.00,4656707.00,    67.26
 295646.00,4656707.00,    67.24
 295647.00,4656707.00,    67.06
 295648.00,4656707.00,    67.33
 295649.00,4656707.00,    67.35
 295650.00,4656707.00,    67.67
 295651.00,4656707.00,    67.78
 295652.00,4656707.00,    67.78
 295653.00,4656707.00,    67.71
 295654.00,4656707.00,    67.44
 295655.00,4656707.00,    67.50
 295656.00,4656707.00,    67.53
 295657.00,4656707.00,    67.60
 295658.00,4656707.00,    67.50
 295659.00,4656707.00,    67.58
 295660.00,4656707.00,    67.68
 295661.00,4656707.00,    67.64
 295662.00,4656707.00,    67.56
 295663.00,4656707.00,    67.40
 295664.00,4656707.00,    67.41
 295665.00,4656707.00,    67.45
 295666.00,4656707.00,    67.39
 295667.00,4656707.00,    67.40
 295668.00,4656707.00,    67.44
 295669.00,4656707.00,    67.51
 295670.00,4656707.00,    67.50
 295671.00,4656707.00,    67.52
 295672.00,4656707.00,    67.52
 295673.00,4656707.00,    67.87
 295674.00,4656707.00,    67.87
 295675.00,4656707.00,    67.90
 295676.00,4656707.00,    67.63
 295677.00,4656707.00,    66.87
 295678.00,4656707.00,    67.66
 295679.00,4656707.00,    68.26
 295680.00,4656707.00,    68.26
 295681.00,4656707.00,    69.17
 295682.00,4656707.00,    69.80
 295683.00,4656707.00,    70.25
 295684.00,4656707.00,    71.18
 295685.00,4656707.00,    71.80
 295686.00,4656707.00,    72.58
 295687.00,4656707.00,    72.94
 295688.00,4656707.00,    72.94
 295691.00,4656707.00,    73.16
 295692.00,4656707.00,    73.09
 295693.00,4656707.00,    73.16
 295561.00,4656706.00,    67.58
 295562.00,4656706.00,    67.53
 295563.00,4656706.00,    67.53
 295564.00,4656706.00,    67.30
 295565.00,4656706.00,    67.30
 295566.00,4656706.00,    67.30
 295567.00,4656706.00,    67.49
 295568.00,4656706.00,    67.37
 295569.00,4656706.00,    67.17
 295570.00,4656706.00,    67.30
 295571.00,4656706.00,    67.24
 295572.00,4656706.00,    67.12
 295573.00,4656706.00,    67.24
 295574.00,4656706.00,    67.42
 295575.00,4656706.00,    67.06
 295576.00,4656706.00,    67.08
 295577.00,4656706.00,    66.77
 295578.00,4656706.00,    66.89
 295579.00,4656706.00,    67.01
 295580.00,4656706.00,    66.89
 295581.00,4656706.00,    67.28
 295582.00,4656706.00,    67.35
 295583.00,4656706.00,    67.10
 295584.00,4656706.00,    67.16
 295585.00,4656706.00,    67.33
 295586.00,4656706.00,    67.32
 295587.00,4656706.00,    67.22
 295588.00,4656706.00,    67.23
 295589.00,4656706.00,    67.33
 295590.00,4656706.00,    67.23
 295591.00,4656706.00,    67.35
 295592.00,4656706.00,    67.35
 295593.00,4656706.00,    67.42
 295594.00,4656706.00,    67.26
 295595.00,4656706.00,    67.17
 295596.00,4656706.00,    67.18
 295597.00,4656706.00,    67.20
 295598.00,4656706.00,    67.23
 295599.00,4656706.00,    67.37
 295600.00,4656706.00,    67.17
 295601.00,4656706.00,    67.08
 295602.00,4656706.00,    67.03
 295603.00,4656706.00,    67.05
 295604.00,4656706.00,    67.01
 295605.00,4656706.00,    67.14
 295606.00,4656706.00,    67.43
 295607.00,4656706.00,    67.46
 295608.00,4656706.00,    67.35
 295609.00,4656706.00,    67.23
 295610.00,4656706.00,    67.30
 295611.00,4656706.00,    67.32
 295612.00,4656706.00,    67.58
 295613.00,4656706.00,    67.45
 295614.00,4656706.00,    67.39
 295615.00,4656706.00,    67.32
 295616.00,4656706.00,    67.30
 295617.00,4656706.00,    67.30
 295618.00,4656706.00,    67.38
 295619.00,4656706.00,    67.58
 295620.00,4656706.00,    67.10
 295621.00,4656706.00,    67.02
 295622.00,4656706.00,    66.95
 295623.00,4656706.00,    66.92
 295624.00,4656706.00,    67.05
 295625.00,4656706.00,    67.09
 295626.00,4656706.00,    67.27
 295627.00,4656706.00,    67.32
 295628.00,4656706.00,    67.28
 295629.00,4656706.00,    67.25
 295630.00,4656706.00,    67.34
 295631.00,4656706.00,    67.39
 295632.00,4656706.00,    67.43
 295633.00,4656706.00,    67.46
 295634.00,4656706.00,    67.43
 295635.00,4656706.00,    67.43
 295636.00,4656706.00,    67.46
 295637.00,4656706.00,    67.48
 295638.00,4656706.00,    67.53
 295639.00,4656706.00,    67.37
 295640.00,4656706.00,    67.34
 295641.00,4656706.00,    67.38
 295642.00,4656706.00,    67.42
 295643.00,4656706.00,    67.60
 295644.00,4656706.00,    67.29
 295645.00,4656706.00,    67.26
 295646.00,4656706.00,    67.15
 295647.00,4656706.00,    67.17
 295648.00,4656706.00,    67.31
 295649.00,4656706.00,    67.38
 295650.00,4656706.00,    67.51
 295651.00,4656706.00,    67.79
 295652.00,4656706.00,    67.54
 295653.00,4656706.00,    67.47
 295654.00,4656706.00,    67.46
 295655.00,4656706.00,    67.48
 295656.00,4656706.00,    67.56
 295657.00,4656706.00,    67.51
 295658.00,4656706.00,    67.53
 295659.00,4656706.00,    67.50
 295660.00,4656706.00,    67.51
 295661.00,4656706.00,    67.42
 295662.00,4656706.00,    67.37
 295663.00,4656706.00,    67.54
 295664.00,4656706.00,    67.57
 295665.00,4656706.00,    67.60
 295666.00,4656706.00,    67.61
 295667.00,4656706.00,    67.43
 295668.00,4656706.00,    67.66
 295669.00,4656706.00,    67.67
 295670.00,4656706.00,    67.72
 295671.00,4656706.00,    67.76
 295672.00,4656706.00,    67.74
 295673.00,4656706.00,    67.63
 295674.00,4656706.00,    67.99
 295675.00,4656706.00,    68.21
 295676.00,4656706.00,    67.47
 295677.00,4656706.00,    67.20
 295678.00,4656706.00,    67.51
 295679.00,4656706.00,    68.26
 295680.00,4656706.00,    68.38
 295681.00,4656706.00,    69.21
 295682.00,4656706.00,    69.87
 295683.00,4656706.00,    70.41
 295684.00,4656706.00,    71.43
 295685.00,4656706.00,    72.05
 295686.00,4656706.00,    72.42
 295687.00,4656706.00,    72.81
 295688.00,4656706.00,    72.94
 295691.00,4656706.00,    73.51
 295692.00,4656706.00,    73.51
 295693.00,4656706.00,    73.51
 295561.00,4656705.00,    67.34
 295562.00,4656705.00,    67.58
 295563.00,4656705.00,    67.53
 295564.00,4656705.00,    67.30
 295565.00,4656705.00,    67.11
 295566.00,4656705.00,    67.54
 295567.00,4656705.00,    67.32
 295568.00,4656705.00,    67.35
 295569.00,4656705.00,    66.88
 295570.00,4656705.00,    67.13
 295571.00,4656705.00,    67.21
 295572.00,4656705.00,    67.27
 295573.00,4656705.00,    67.30
 295574.00,4656705.00,    67.19
 295575.00,4656705.00,    66.99
 295576.00,4656705.00,    66.99
 295577.00,4656705.00,    66.80
 295578.00,4656705.00,    66.89
 295579.00,4656705.00,    67.01
 295580.00,4656705.00,    66.98
 295581.00,4656705.00,    67.14
 295582.00,4656705.00,    67.09
 295583.00,4656705.00,    67.24
 295584.00,4656705.00,    67.09
 295585.00,4656705.00,    67.04
 295586.00,4656705.00,    67.21
 295587.00,4656705.00,    67.37
 295588.00,4656705.00,    67.38
 295589.00,4656705.00,    67.28
 295590.00,4656705.00,    67.31
 295591.00,4656705.00,    67.33
 295592.00,4656705.00,    67.29
 295593.00,4656705.00,    67.34
 295594.00,4656705.00,    67.26
 295595.00,4656705.00,    67.26
 295596.00,4656705.00,    67.27
 295597.00,4656705.00,    67.43
 295598.00,4656705.00,    67.45
 295599.00,4656705.00,    67.17
 295600.00,4656705.00,    67.13
 295601.00,4656705.00,    66.94
 295602.00,4656705.00,    66.92
 295603.00,4656705.00,    67.02
 295604.00,4656705.00,    67.25
 295605.00,4656705.00,    67.38
 295606.00,4656705.00,    67.31
 295607.00,4656705.00,    67.31
 295608.00,4656705.00,    67.23
 295609.00,4656705.00,    67.28
 295610.00,4656705.00,    67.52
 295611.00,4656705.00,    67.29
 295612.00,4656705.00,    67.40
 295613.00,4656705.00,    67.36
 295614.00,4656705.00,    67.30
 295615.00,4656705.00,    67.30
 295616.00,4656705.00,    67.26
 295617.00,4656705.00,    67.35
 295618.00,4656705.00,    67.38
 295619.00,4656705.00,    67.32
 295620.00,4656705.00,    67.04
 295621.00,4656705.00,    66.91
 295622.00,4656705.00,    66.97
 295623.00,4656705.00,    67.07
 295624.00,4656705.00,    67.38
 295625.00,4656705.00,    67.34
 295626.00,4656705.00,    67.28
 295627.00,4656705.00,    67.27
 295628.00,4656705.00,    67.25
 295629.00,4656705.00,    67.32
 295630.00,4656705.00,    67.33
 295631.00,4656705.00,    67.63
 295632.00,4656705.00,    67.47
 295633.00,4656705.00,    67.43
 295634.00,4656705.00,    67.41
 295635.00,4656705.00,    67.41
 295636.00,4656705.00,    67.54
 295637.00,4656705.00,    67.64
 295638.00,4656705.00,    67.37
 295639.00,4656705.00,    67.34
 295640.00,4656705.00,    67.38
 295641.00,4656705.00,    67.42
 295642.00,4656705.00,    67.51
 295643.00,4656705.00,    67.21
 295644.00,4656705.00,    67.29
 295645.00,4656705.00,    67.21
 295646.00,4656705.00,    67.24
 295647.00,4656705.00,    67.30
 295648.00,4656705.00,    67.37
 295649.00,4656705.00,    67.42
 295650.00,4656705.00,    67.64
 295651.00,4656705.00,    67.87
 295652.00,4656705.00,    67.80
 295653.00,4656705.00,    67.42
 295654.00,4656705.00,    67.47
 295655.00,4656705.00,    67.53
 295656.00,4656705.00,    67.68
 295657.00,4656705.00,    67.51
 295658.00,4656705.00,    67.52
 295659.00,4656705.00,    67.51
 295660.00,4656705.00,    67.66
 295661.00,4656705.00,    67.43
 295662.00,4656705.00,    67.44
 295663.00,4656705.00,    67.53
 295664.00,4656705.00,    67.44
 295665.00,4656705.00,    67.41
 295666.00,4656705.00,    67.53
 295667.00,4656705.00,    67.63
 295668.00,4656705.00,    67.53
 295669.00,4656705.00,    67.63
 295670.00,4656705.00,    67.68
 295671.00,4656705.00,    67.71
 295672.00,4656705.00,    67.59
 295673.00,4656705.00,    67.74
 295674.00,4656705.00,    67.90
 295675.00,4656705.00,    68.06
 295676.00,4656705.00,    67.67
 295677.00,4656705.00,    67.47
 295678.00,4656705.00,    67.82
 295679.00,4656705.00,    68.38
 295680.00,4656705.00,    68.71
 295681.00,4656705.00,    69.09
 295682.00,4656705.00,    69.34
 295683.00,4656705.00,    70.65
 295684.00,4656705.00,    71.39
 295685.00,4656705.00,    72.21
 295686.00,4656705.00,    72.27
 295687.00,4656705.00,    72.81
 295688.00,4656705.00,    72.96
 295691.00,4656705.00,    73.35
 295692.00,4656705.00,    73.51
 295693.00,4656705.00,    73.51
 295560.00,4656704.00,    67.32
 295561.00,4656704.00,    67.40
 295562.00,4656704.00,    67.34
 295563.00,4656704.00,    67.30
 295564.00,4656704.00,    67.26
 295565.00,4656704.00,    67.38
 295566.00,4656704.00,    67.28
 295567.00,4656704.00,    67.19
 295568.00,4656704.00,    67.23
 295569.00,4656704.00,    67.26
 295570.00,4656704.00,    67.21
 295571.00,4656704.00,    67.16
 295572.00,4656704.00,    67.26
 295573.00,4656704.00,    67.25
 295574.00,4656704.00,    67.23
 295575.00,4656704.00,    66.88
 295576.00,4656704.00,    66.93
 295577.00,4656704.00,    66.93
 295578.00,4656704.00,    67.19
 295579.00,4656704.00,    67.19
 295580.00,4656704.00,    67.36
 295581.00,4656704.00,    67.36
 295582.00,4656704.00,    67.24
 295583.00,4656704.00,    67.25
 295584.00,4656704.00,    67.41
 295585.00,4656704.00,    67.41
 295586.00,4656704.00,    67.43
 295587.00,4656704.00,    67.32
 295588.00,4656704.00,    67.42
 295589.00,4656704.00,    67.35
 295590.00,4656704.00,    67.49
 295591.00,4656704.00,    67.54
 295592.00,4656704.00,    67.49
 295593.00,4656704.00,    67.29
 295594.00,4656704.00,    67.35
 295595.00,4656704.00,    67.21
 295596.00,4656704.00,    67.37
 295597.00,4656704.00,    67.47
 295598.00,4656704.00,    67.30
 295599.00,4656704.00,    67.12
 295600.00,4656704.00,    66.98
 295601.00,4656704.00,    67.04
 295602.00,4656704.00,    66.88
 295603.00,4656704.00,    67.01
 295604.00,4656704.00,    67.05
 295605.00,4656704.00,    67.25
 295606.00,4656704.00,    67.28
 295607.00,4656704.00,    67.22
 295608.00,4656704.00,    67.32
 295609.00,4656704.00,    67.24
 295610.00,4656704.00,    67.35
 295611.00,4656704.00,    67.33
 295612.00,4656704.00,    67.36
 295613.00,4656704.00,    67.31
 295614.00,4656704.00,    67.32
 295615.00,4656704.00,    67.25
 295616.00,4656704.00,    67.24
 295617.00,4656704.00,    67.31
 295618.00,4656704.00,    67.37
 295619.00,4656704.00,    67.40
 295620.00,4656704.00,    66.97
 295621.00,4656704.00,    66.91
 295622.00,4656704.00,    67.03
 295623.00,4656704.00,    67.05
 295624.00,4656704.00,    67.41
 295625.00,4656704.00,    67.35
 295626.00,4656704.00,    67.22
 295627.00,4656704.00,    67.22
 295628.00,4656704.00,    67.27
 295629.00,4656704.00,    67.46
 295630.00,4656704.00,    67.47
 295631.00,4656704.00,    67.49
 295632.00,4656704.00,    67.39
 295633.00,4656704.00,    67.36
 295634.00,4656704.00,    67.37
 295635.00,4656704.00,    67.43
 295636.00,4656704.00,    67.44
 295637.00,4656704.00,    67.38
 295638.00,4656704.00,    67.34
 295639.00,4656704.00,    67.34
 295640.00,4656704.00,    67.39
 295641.00,4656704.00,    67.36
 295642.00,4656704.00,    67.40
 295643.00,4656704.00,    67.28
 295644.00,4656704.00,    67.21
 295645.00,4656704.00,    67.19
 295646.00,4656704.00,    67.24
 295647.00,4656704.00,    67.29
 295648.00,4656704.00,    67.44
 295649.00,4656704.00,    67.50
 295650.00,4656704.00,    67.56
 295651.00,4656704.00,    67.47
 295652.00,4656704.00,    67.46
 295653.00,4656704.00,    67.45
 295654.00,4656704.00,    67.59
 295655.00,4656704.00,    67.69
 295656.00,4656704.00,    67.52
 295657.00,4656704.00,    67.51
 295658.00,4656704.00,    67.58
 295659.00,4656704.00,    67.64
 295660.00,4656704.00,    67.60
 295661.00,4656704.00,    67.47
 295662.00,4656704.00,    67.32
 295663.00,4656704.00,    67.41
 295664.00,4656704.00,    67.44
 295665.00,4656704.00,    67.49
 295666.00,4656704.00,    67.43
 295667.00,4656704.00,    67.35
 295668.00,4656704.00,    67.41
 295669.00,4656704.00,    67.53
 295670.00,4656704.00,    67.69
 295671.00,4656704.00,    67.75
 295672.00,4656704.00,    67.50
 295673.00,4656704.00,    67.81
 295674.00,4656704.00,    67.95
 295675.00,4656704.00,    67.99
 295676.00,4656704.00,    67.67
 295677.00,4656704.00,    67.54
 295678.00,4656704.00,    67.77
 295679.00,4656704.00,    68.57
 295680.00,4656704.00,    68.57
 295681.00,4656704.00,    69.38
 295682.00,4656704.00,    70.32
 295683.00,4656704.00,    70.85
 295684.00,4656704.00,    71.22
 295685.00,4656704.00,    72.21
 295686.00,4656704.00,    72.59
 295687.00,4656704.00,    72.96
 295688.00,4656704.00,    73.41
 295690.00,4656704.00,    73.02
 295691.00,4656704.00,    72.88
 295692.00,4656704.00,    73.35
 295693.00,4656704.00,    73.51
 295560.00,4656703.00,    67.40
 295561.00,4656703.00,    67.40
 295562.00,4656703.00,    67.54
 295563.00,4656703.00,    67.48
 295564.00,4656703.00,    67.44
 295565.00,4656703.00,    67.38
 295566.00,4656703.00,    67.45
 295567.00,4656703.00,    67.28
 295568.00,4656703.00,    67.27
 295569.00,4656703.00,    67.32
 295570.00,4656703.00,    67.26
 295571.00,4656703.00,    67.36
 295572.00,4656703.00,    67.30
 295573.00,4656703.00,    67.11
 295574.00,4656703.00,    66.97
 295575.00,4656703.00,    67.06
 295576.00,4656703.00,    66.93
 295577.00,4656703.00,    66.93
 295578.00,4656703.00,    67.21
 295579.00,4656703.00,    67.34
 295580.00,4656703.00,    67.30
 295581.00,4656703.00,    67.27
 295582.00,4656703.00,    67.27
 295583.00,4656703.00,    67.28
 295584.00,4656703.00,    67.39
 295585.00,4656703.00,    67.18
 295586.00,4656703.00,    67.29
 295587.00,4656703.00,    67.31
 295588.00,4656703.00,    67.22
 295589.00,4656703.00,    67.22
 295590.00,4656703.00,    67.30
 295591.00,4656703.00,    67.33
 295592.00,4656703.00,    67.18
 295593.00,4656703.00,    67.20
 295594.00,4656703.00,    67.25
 295595.00,4656703.00,    67.19
 295596.00,4656703.00,    67.25
 295597.00,4656703.00,    67.37
 295598.00,4656703.00,    67.15
 295599.00,4656703.00,    67.05
 295600.00,4656703.00,    66.93
 295601.00,4656703.00,    67.21
 295602.00,4656703.00,    67.09
 295603.00,4656703.00,    67.40
 295604.00,4656703.00,    67.49
 295605.00,4656703.00,    67.30
 295606.00,4656703.00,    67.30
 295607.00,4656703.00,    67.41
 295608.00,4656703.00,    67.30
 295609.00,4656703.00,    67.48
 295610.00,4656703.00,    67.62
 295611.00,4656703.00,    67.39
 295612.00,4656703.00,    67.32
 295613.00,4656703.00,    67.30
 295614.00,4656703.00,    67.33
 295615.00,4656703.00,    67.61
 295616.00,4656703.00,    67.42
 295617.00,4656703.00,    67.43
 295618.00,4656703.00,    67.11
 295619.00,4656703.00,    66.99
 295620.00,4656703.00,    67.17
 295621.00,4656703.00,    67.00
 295622.00,4656703.00,    67.03
 295623.00,4656703.00,    67.19
 295624.00,4656703.00,    67.31
 295625.00,4656703.00,    67.25
 295626.00,4656703.00,    67.23
 295627.00,4656703.00,    67.26
 295628.00,4656703.00,    67.27
 295629.00,4656703.00,    67.47
 295630.00,4656703.00,    67.48
 295631.00,4656703.00,    67.39
 295632.00,4656703.00,    67.38
 295633.00,4656703.00,    67.38
 295634.00,4656703.00,    67.48
 295635.00,4656703.00,    67.42
 295636.00,4656703.00,    67.43
 295637.00,4656703.00,    67.34
 295638.00,4656703.00,    67.31
 295639.00,4656703.00,    67.40
 295640.00,4656703.00,    67.47
 295641.00,4656703.00,    67.37
 295642.00,4656703.00,    67.29
 295643.00,4656703.00,    67.16
 295644.00,4656703.00,    67.17
 295645.00,4656703.00,    67.28
 295646.00,4656703.00,    67.32
 295647.00,4656703.00,    67.40
 295648.00,4656703.00,    67.47
 295649.00,4656703.00,    67.65
 295650.00,4656703.00,    67.61
 295651.00,4656703.00,    67.43
 295652.00,4656703.00,    67.49
 295653.00,4656703.00,    67.52
 295654.00,4656703.00,    67.55
 295655.00,4656703.00,    67.49
 295656.00,4656703.00,    67.53
 295657.00,4656703.00,    67.59
 295658.00,4656703.00,    67.68
 295659.00,4656703.00,    67.54
 295660.00,4656703.00,    67.41
 295661.00,4656703.00,    67.37
 295662.00,4656703.00,    67.40
 295663.00,4656703.00,    67.38
 295664.00,4656703.00,    67.41
 295665.00,4656703.00,    67.40
 295666.00,4656703.00,    67.50
 295667.00,4656703.00,    67.35
 295668.00,4656703.00,    67.43
 295669.00,4656703.00,    67.52
 295670.00,4656703.00,    67.59
 295671.00,4656703.00,    67.71
 295672.00,4656703.00,    67.64
 295673.00,4656703.00,    67.89
 295674.00,4656703.00,    67.66
 295675.00,4656703.00,    67.90
 295676.00,4656703.00,    67.52
 295677.00,4656703.00,    67.78
 295678.00,4656703.00,    67.77
 295679.00,4656703.00,    68.57
 295680.00,4656703.00,    68.86
 295681.00,4656703.00,    69.17
 295682.00,4656703.00,    70.21
 295683.00,4656703.00,    70.89
 295684.00,4656703.00,    71.09
 295685.00,4656703.00,    72.25
 295686.00,4656703.00,    72.76
 295687.00,4656703.00,    73.14
 295688.00,4656703.00,    73.14
 295690.00,4656703.00,    73.02
 295691.00,4656703.00,    73.02
 295692.00,4656703.00,    73.15
 295560.00,4656702.00,    67.53
 295561.00,4656702.00,    67.53
 295562.00,4656702.00,    67.39
 295563.00,4656702.00,    66.80
 295564.00,4656702.00,    67.44
 295565.00,4656702.00,    67.39
 295566.00,4656702.00,    67.30
 295567.00,4656702.00,    66.84
 295568.00,4656702.00,    67.31
 295569.00,4656702.00,    67.29
 295570.00,4656702.00,    67.29
 295571.00,4656702.00,    67.26
 295572.00,4656702.00,    66.88
 295573.00,4656702.00,    66.95
 295574.00,4656702.00,    67.04
 295575.00,4656702.00,    67.04
 295576.00,4656702.00,    67.06
 295577.00,4656702.00,    67.21
 295578.00,4656702.00,    67.31
 295579.00,4656702.00,    67.22
 295580.00,4656702.00,    67.14
 295581.00,4656702.00,    67.14
 295582.00,4656702.00,    67.20
 295583.00,4656702.00,    67.25
 295584.00,4656702.00,    67.36
 295585.00,4656702.00,    67.37
 295586.00,4656702.00,    67.35
 295587.00,4656702.00,    67.31
 295588.00,4656702.00,    67.43
 295589.00,4656702.00,    67.57
 295590.00,4656702.00,    67.55
 295591.00,4656702.00,    67.32
 295592.00,4656702.00,    67.32
 295593.00,4656702.00,    67.34
 295594.00,4656702.00,    67.30
 295595.00,4656702.00,    67.50
 295596.00,4656702.00,    67.46
 295597.00,4656702.00,    67.20
 295598.00,4656702.00,    67.02
 295599.00,4656702.00,    66.89
 295600.00,4656702.00,    67.06
 295601.00,4656702.00,    67.14
 295602.00,4656702.00,    67.37
 295603.00,4656702.00,    67.46
 295604.00,4656702.00,    67.32
 295605.00,4656702.00,    67.27
 295606.00,4656702.00,    67.43
 295607.00,4656702.00,    67.32
 295608.00,4656702.00,    67.53
 295609.00,4656702.00,    67.47
 295610.00,4656702.00,    67.39
 295611.00,4656702.00,    67.26
 295612.00,4656702.00,    67.27
 295613.00,4656702.00,    67.34
 295614.00,4656702.00,    67.27
 295615.00,4656702.00,    67.33
 295616.00,4656702.00,    67.45
 295617.00,4656702.00,    67.08
 295618.00,4656702.00,    66.97
 295619.00,4656702.00,    66.94
 295620.00,4656702.00,    66.98
 295621.00,4656702.00,    66.98
 295622.00,4656702.00,    67.26
 295623.00,4656702.00,    67.40
 295624.00,4656702.00,    67.25
 295625.00,4656702.00,    67.27
 295626.00,4656702.00,    67.28
 295627.00,4656702.00,    67.36
 295628.00,4656702.00,    67.44
 295629.00,4656702.00,    67.48
 295630.00,4656702.00,    67.53
 295631.00,4656702.00,    67.39
 295632.00,4656702.00,    67.38
 295633.00,4656702.00,    67.45
 295634.00,4656702.00,    67.48
 295635.00,4656702.00,    67.51
 295636.00,4656702.00,    67.29
 295637.00,4656702.00,    67.34
 295638.00,4656702.00,    67.37
 295639.00,4656702.00,    67.45
 295640.00,4656702.00,    67.56
 295641.00,4656702.00,    67.18
 295642.00,4656702.00,    67.22
 295643.00,4656702.00,    67.16
 295644.00,4656702.00,    67.23
 295645.00,4656702.00,    67.31
 295646.00,4656702.00,    67.43
 295647.00,4656702.00,    67.52
 295648.00,4656702.00,    67.53
 295649.00,4656702.00,    67.37
 295650.00,4656702.00,    67.37
 295651.00,4656702.00,    67.46
 295652.00,4656702.00,    67.59
 295653.00,4656702.00,    67.54
 295654.00,4656702.00,    67.49
 295655.00,4656702.00,    67.54
 295656.00,4656702.00,    67.55
 295657.00,4656702.00,    67.66
 295658.00,4656702.00,    67.57
 295659.00,4656702.00,    67.61
 295660.00,4656702.00,    67.47
 295661.00,4656702.00,    67.50
 295662.00,4656702.00,    67.39
 295663.00,4656702.00,    67.41
 295664.00,4656702.00,    67.47
 295665.00,4656702.00,    67.43
 295666.00,4656702.00,    67.41
 295667.00,4656702.00,    67.34
 295668.00,4656702.00,    67.45
 295669.00,4656702.00,    67.58
 295670.00,4656702.00,    67.75
 295671.00,4656702.00,    67.73
 295672.00,4656702.00,    67.66
 295673.00,4656702.00,    67.97
 295674.00,4656702.00,    68.00
 295675.00,4656702.00,    67.96
 295676.00,4656702.00,    66.97
 295677.00,4656702.00,    67.41
 295678.00,4656702.00,    67.98
 295679.00,4656702.00,    68.72
 295680.00,4656702.00,    68.72
 295681.00,4656702.00,    69.32
 295682.00,4656702.00,    70.25
 295683.00,4656702.00,    70.91
 295684.00,4656702.00,    71.32
 295685.00,4656702.00,    72.25
 295686.00,4656702.00,    72.88
 295687.00,4656702.00,    73.13
 295688.00,4656702.00,    73.13
 295690.00,4656702.00,    73.15
 295691.00,4656702.00,    73.15
 295692.00,4656702.00,    73.15
 295561.00,4656701.00,    67.53
 295562.00,4656701.00,    67.53
 295563.00,4656701.00,    67.48
 295564.00,4656701.00,    67.46
 295565.00,4656701.00,    67.26
 295566.00,4656701.00,    67.30
 295567.00,4656701.00,    67.31
 295568.00,4656701.00,    67.25
 295569.00,4656701.00,    67.42
 295570.00,4656701.00,    67.45
 295571.00,4656701.00,    67.21
 295572.00,4656701.00,    67.15
 295573.00,4656701.00,    66.86
 295574.00,4656701.00,    67.04
 295575.00,4656701.00,    67.04
 295576.00,4656701.00,    67.15
 295577.00,4656701.00,    67.13
 295578.00,4656701.00,    67.36
 295579.00,4656701.00,    67.15
 295580.00,4656701.00,    67.22
 295581.00,4656701.00,    67.26
 295582.00,4656701.00,    67.35
 295583.00,4656701.00,    67.35
 295584.00,4656701.00,    67.46
 295585.00,4656701.00,    67.40
 295586.00,4656701.00,    67.41
 295587.00,4656701.00,    67.41
 295588.00,4656701.00,    67.49
 295589.00,4656701.00,    67.43
 295590.00,4656701.00,    67.23
 295591.00,4656701.00,    67.35
 295592.00,4656701.00,    67.38
 295593.00,4656701.00,    67.34
 295594.00,4656701.00,    67.53
 295595.00,4656701.00,    67.45
 295596.00,4656701.00,    67.25
 295597.00,4656701.00,    67.18
 295598.00,4656701.00,    66.97
 295599.00,4656701.00,    66.70
 295600.00,4656701.00,    67.09
 295601.00,4656701.00,    66.96
 295602.00,4656701.00,    67.37
 295603.00,4656701.00,    67.48
 295604.00,4656701.00,    67.45
 295605.00,4656701.00,    67.25
 295606.00,4656701.00,    67.33
 295607.00,4656701.00,    67.29
 295608.00,4656701.00,    67.39
 295609.00,4656701.00,    67.42
 295610.00,4656701.00,    67.30
 295611.00,4656701.00,    67.36
 295612.00,4656701.00,    67.35
 295613.00,4656701.00,    67.30
 295614.00,4656701.00,    67.41
 295615.00,4656701.00,    67.31
 295616.00,4656701.00,    67.16
 295617.00,4656701.00,    67.00
 295618.00,4656701.00,    66.95
 295619.00,4656701.00,    66.98
 295620.00,4656701.00,    67.10
 295621.00,4656701.00,    67.24
 295622.00,4656701.00,    67.35
 295623.00,4656701.00,    67.26
 295624.00,4656701.00,    67.23
 295625.00,4656701.00,    67.25
 295626.00,4656701.00,    67.23
 295627.00,4656701.00,    67.22
 295628.00,4656701.00,    67.40
 295629.00,4656701.00,    67.43
 295630.00,4656701.00,    67.41
 295631.00,4656701.00,    67.35
 295632.00,4656701.00,    67.36
 295633.00,4656701.00,    67.48
 295634.00,4656701.00,    67.45
 295635.00,4656701.00,    67.31
 295636.00,4656701.00,    67.31
 295637.00,4656701.00,    67.36
 295638.00,4656701.00,    67.41
 295639.00,4656701.00,    67.46
 295640.00,4656701.00,    67.50
 295641.00,4656701.00,    67.11
 295642.00,4656701.00,    67.01
 295643.00,4656701.00,    67.20
 295644.00,4656701.00,    67.29
 295645.00,4656701.00,    67.36
 295646.00,4656701.00,    67.73
 295647.00,4656701.00,    67.54
 295648.00,4656701.00,    67.48
 295649.00,4656701.00,    67.48
 295650.00,4656701.00,    67.45
 295651.00,4656701.00,    67.52
 295652.00,4656701.00,    67.66
 295653.00,4656701.00,    67.57
 295654.00,4656701.00,    67.56
 295655.00,4656701.00,    67.48
 295656.00,4656701.00,    67.56
 295657.00,4656701.00,    67.64
 295658.00,4656701.00,    67.31
 295659.00,4656701.00,    67.41
 295660.00,4656701.00,    67.41
 295661.00,4656701.00,    67.31
 295662.00,4656701.00,    67.31
 295663.00,4656701.00,    67.44
 295664.00,4656701.00,    67.28
 295665.00,4656701.00,    67.40
 295666.00,4656701.00,    67.35
 295667.00,4656701.00,    67.27
 295668.00,4656701.00,    67.40
 295669.00,4656701.00,    67.78
 295670.00,4656701.00,    67.70
 295671.00,4656701.00,    67.62
 295672.00,4656701.00,    67.91
 295673.00,4656701.00,    67.89
 295674.00,4656701.00,    67.92
 295675.00,4656701.00,    67.75
 295676.00,4656701.00,    66.87
 295677.00,4656701.00,    67.51
 295678.00,4656701.00,    67.98
 295679.00,4656701.00,    68.27
 295680.00,4656701.00,    68.94
 295681.00,4656701.00,    69.84
 295682.00,4656701.00,    70.46
 295683.00,4656701.00,    70.89
 295684.00,4656701.00,    71.84
 295685.00,4656701.00,    72.42
 295686.00,4656701.00,    72.83
 295687.00,4656701.00,    73.10
 295688.00,4656701.00,    73.10
 295690.00,4656701.00,    73.18
 295691.00,4656701.00,    73.29
 295692.00,4656701.00,    73.18
 295561.00,4656700.00,    67.53
 295562.00,4656700.00,    67.53
 295563.00,4656700.00,    67.54
 295564.00,4656700.00,    67.01
 295565.00,4656700.00,    67.31
 295566.00,4656700.00,    67.31
 295567.00,4656700.00,    67.31
 295568.00,4656700.00,    67.61
 295569.00,4656700.00,    67.44
 295570.00,4656700.00,    67.42
 295571.00,4656700.00,    67.13
 295572.00,4656700.00,    67.13
 295573.00,4656700.00,    66.86
 295574.00,4656700.00,    67.01
 295575.00,4656700.00,    67.31
 295576.00,4656700.00,    66.95
 295577.00,4656700.00,    67.15
 295578.00,4656700.00,    67.31
 295579.00,4656700.00,    67.11
 295580.00,4656700.00,    67.17
 295581.00,4656700.00,    67.26
 295582.00,4656700.00,    67.31
 295583.00,4656700.00,    67.29
 295584.00,4656700.00,    67.35
 295585.00,4656700.00,    67.35
 295586.00,4656700.00,    67.36
 295587.00,4656700.00,    67.39
 295588.00,4656700.00,    67.44
 295589.00,4656700.00,    67.35
 295590.00,4656700.00,    67.35
 295591.00,4656700.00,    67.23
 295592.00,4656700.00,    67.23
 295593.00,4656700.00,    67.30
 295594.00,4656700.00,    67.34
 295595.00,4656700.00,    67.31
 295596.00,4656700.00,    67.17
 295597.00,4656700.00,    67.07
 295598.00,4656700.00,    66.90
 295599.00,4656700.00,    67.03
 295600.00,4656700.00,    67.10
 295601.00,4656700.00,    67.23
 295602.00,4656700.00,    67.44
 295603.00,4656700.00,    67.36
 295604.00,4656700.00,    67.35
 295605.00,4656700.00,    67.40
 295606.00,4656700.00,    67.48
 295607.00,4656700.00,    67.53
 295608.00,4656700.00,    67.40
 295609.00,4656700.00,    67.31
 295610.00,4656700.00,    67.46
 295611.00,4656700.00,    67.42
 295612.00,4656700.00,    67.25
 295613.00,4656700.00,    67.50
 295614.00,4656700.00,    67.29
 295615.00,4656700.00,    67.15
 295616.00,4656700.00,    67.04
 295617.00,4656700.00,    66.96
 295618.00,4656700.00,    66.98
 295619.00,4656700.00,    67.21
 295620.00,4656700.00,    67.43
 295621.00,4656700.00,    67.41
 295622.00,4656700.00,    67.36
 295623.00,4656700.00,    67.22
 295624.00,4656700.00,    67.22
 295625.00,4656700.00,    67.30
 295626.00,4656700.00,    67.50
 295627.00,4656700.00,    67.41
 295628.00,4656700.00,    67.43
 295629.00,4656700.00,    67.41
 295630.00,4656700.00,    67.37
 295631.00,4656700.00,    67.37
 295632.00,4656700.00,    67.41
 295633.00,4656700.00,    67.39
 295634.00,4656700.00,    67.31
 295635.00,4656700.00,    67.29
 295636.00,4656700.00,    67.34
 295637.00,4656700.00,    67.48
 295638.00,4656700.00,    67.44
 295639.00,4656700.00,    67.32
 295640.00,4656700.00,    67.17
 295641.00,4656700.00,    66.88
 295642.00,4656700.00,    67.17
 295643.00,4656700.00,    67.32
 295644.00,4656700.00,    67.29
 295645.00,4656700.00,    67.52
 295646.00,4656700.00,    67.41
 295647.00,4656700.00,    67.30
 295648.00,4656700.00,    67.38
 295649.00,4656700.00,    67.47
 295650.00,4656700.00,    67.47
 295651.00,4656700.00,    67.69
 295652.00,4656700.00,    67.65
 295653.00,4656700.00,    67.68
 295654.00,4656700.00,    67.49
 295655.00,4656700.00,    67.50
 295656.00,4656700.00,    67.74
 295657.00,4656700.00,    67.68
 295658.00,4656700.00,    67.59
 295659.00,4656700.00,    67.65
 295660.00,4656700.00,    67.58
 295661.00,4656700.00,    67.56
 295662.00,4656700.00,    67.57
 295663.00,4656700.00,    67.59
 295664.00,4656700.00,    67.42
 295665.00,4656700.00,    67.33
 295666.00,4656700.00,    67.37
 295667.00,4656700.00,    67.50
 295668.00,4656700.00,    67.65
 295669.00,4656700.00,    67.75
 295670.00,4656700.00,    67.88
 295671.00,4656700.00,    67.82
 295672.00,4656700.00,    67.89
 295673.00,4656700.00,    68.28
 295674.00,4656700.00,    68.00
 295675.00,4656700.00,    68.13
 295676.00,4656700.00,    67.74
 295677.00,4656700.00,    67.63
 295678.00,4656700.00,    68.07
 295679.00,4656700.00,    68.32
 295680.00,4656700.00,    68.92
 295681.00,4656700.00,    69.95
 295682.00,4656700.00,    70.44
 295683.00,4656700.00,    70.98
 295684.00,4656700.00,    71.80
 295685.00,4656700.00,    72.36
 295686.00,4656700.00,    72.96
 295687.00,4656700.00,    73.06
 295688.00,4656700.00,    73.06
 295690.00,4656700.00,    73.29
 295691.00,4656700.00,    73.18
 295692.00,4656700.00,    73.29
 295561.00,4656699.00,    67.61
 295562.00,4656699.00,    67.54
 295563.00,4656699.00,    67.54
 295564.00,4656699.00,    67.54
